0.00968831 0.224959 0.17497
0.0193052 0.22331 0.167493
-0.0385664 0.189663 0.251688
-0.0318407 0.181882 0.264987
-0.0466155 0.179516 0.263812
0.00998705 0.155494 0.295233
0.0112235 0.136346 0.304535
0.0410366 0.17845 0.264957
0.0321062 0.178425 0.26941
0.0656898 0.184708 0.229981
0.0689047 0.182305 0.225456
0.0596432 0.181613 0.241629
0.071919 0.211289 0.195328
0.0615156 0.205772 0.213144
0.0554405 0.199093 0.225946
0.0559401 0.210872 0.207061
-0.0124104 0.181257 0.269454
-0.00306251 0.198371 0.242903
-0.0073324 0.106536 0.303621
-0.00548804 0.111561 0.304815
0.0420066 0.152916 0.28538
0.0343846 0.148208 0.292071
0.00377643 0.160715 0.2926
-0.0146414 0.0971105 0.299209
-0.0147936 0.111226 0.304381
0.0259577 0.0829454 0.287904
-0.00144819 0.0885 0.29581
-0.00102787 0.098609 0.30031
0.00751082 0.0853101 0.293565
-0.0255049 0.0965096 0.296593
-0.0233709 0.110805 0.303036
0.0404844 0.119815 0.297767
0.0646314 0.21317 0.19896
0.0683268 0.176598 0.227525
0.0590455 0.174947 0.247369
0.065982 0.205445 0.21053
0.0304493 0.198291 0.236566
0.0356703 0.201919 0.227967
0.077658 0.156601 0.223068
0.0797235 0.158279 0.218317
0.0727749 0.20641 0.201405
0.0775863 0.207996 0.191853
0.0509726 0.187077 0.245715
0.0479475 0.153438 0.279775
0.0535114 0.152031 0.27392
0.0472045 0.144657 0.286139
0.208612 0.0266537 0.0922191
0.145647 0.0627362 0.122305
0.156565 0.0659467 0.114581
0.156068 0.0580302 0.118231
0.144743 0.056284 0.127017
0.0993099 0.133477 0.22516
0.106216 0.136442 0.193817
0.107792 0.129044 0.208585
0.125309 0.0543018 0.140158
0.135145 0.0562363 0.131576
0.128964 0.0517983 0.135567
0.157093 0.0948342 0.0839654
0.110028 0.161545 0.180686
0.0146646 -0.0426988 0.176801
0.0907667 0.0441272 0.209093
0.100131 0.0412444 0.195863
0.0924151 0.0384146 0.201573
-0.0999557 -0.125081 0.106321
-0.102692 -0.120761 0.105631
-0.0715134 -0.11696 0.136039
-0.128581 -0.17013 0.121532
-0.112017 -0.181919 0.193359
-0.108054 -0.177904 0.190127
-0.108614 -0.180563 0.197906
-0.0900132 -0.194408 0.239171
-0.0879234 -0.188321 0.233237
-0.0846054 -0.194003 0.241301
-0.114794 -0.179133 0.151272
-0.111531 -0.169169 0.136326
-0.106385 -0.172278 0.140553
-0.106353 -0.17417 0.155911
-0.109552 -0.185361 0.217371
-0.110424 -0.182426 0.204099
-0.127855 -0.183239 0.16485
-0.129488 -0.186021 0.179613
-0.152093 -0.16378 0.085446
-0.105078 -0.206959 0.229611
-0.109915 -0.214328 0.223731
0.103042 -0.156753 0.143781
0.110928 -0.153492 0.140095
0.0262973 -0.169194 0.13041
0.0683313 -0.226467 0.181213
0.0593189 -0.226164 0.175573
0.00290574 -0.177325 0.129792
0.0124706 -0.17579 0.130627
0.0112621 -0.179682 0.137003
0.0188684 -0.131658 0.150115
0.0239803 -0.14604 0.140075
0.011038 -0.143606 0.142141
0.0413732 -0.160196 0.130329
-0.00556325 -0.170299 0.125219
-0.00447218 -0.176923 0.12958
-0.00493183 -0.167297 0.125017
0.0339437 -0.205898 0.167455
0.0262026 -0.204758 0.163741
0.0791444 -0.225779 0.193705
0.0753645 -0.226218 0.188297
0.0487171 -0.226495 0.165582
0.0476479 -0.225164 0.169037
0.0524924 -0.227345 0.160098
0.0457166 -0.187486 0.157519
0.0530998 -0.194707 0.172825
0.0507975 -0.198737 0.175303
0.0190854 -0.225359 0.150664
0.0254311 -0.227089 0.142643
0.0171406 -0.228159 0.132683
0.0248798 -0.125382 0.153715
0.0650421 -0.134077 0.135571
0.0745425 -0.131836 0.130629
0.0732067 -0.138921 0.127379
0.284517 -0.178677 -0.187363
0.285537 -0.177063 -0.203317
0.207672 -0.118219 0.0865543
0.192552 -0.13218 0.090454
0.189286 -0.118946 0.103426
0.181217 -0.119811 0.109502
0.161344 -0.025322 0.100024
0.156501 -0.0369874 0.090265
0.250097 -0.168263 -0.208707
0.239456 -0.0766862 0.0831152
0.213806 -0.0548841 0.08909
0.175688 -0.0503134 0.0845542
0.185381 -0.0564041 0.0899127
0.175031 -0.0649466 0.0903381
0.273956 -0.171492 -0.20988
0.274232 -0.171681 -0.232806
0.228203 -0.117803 0.0576171
0.191689 -0.0909755 0.102918
0.202552 -0.081461 0.0989941
0.203761 -0.0890177 0.100751
0.203055 -0.101177 0.100727
0.291881 -0.21683 -0.181685
0.147114 -0.179311 0.201275
-0.0811862 -0.201079 0.243937
-0.0777548 -0.194274 0.240725
-0.0789887 -0.216424 0.236885
0.0948938 -0.161076 0.149519
0.0878049 -0.162286 0.149028
0.0857676 -0.158795 0.143069
0.0541405 -0.192396 0.17009
0.0610197 -0.215535 0.186803
0.0696171 -0.220456 0.192451
0.0583034 -0.221429 0.181456
0.0704205 -0.211636 0.196809
0.0762281 -0.217225 0.200386
0.0443626 -0.18355 0.152639
0.03585 -0.178473 0.149214
0.0387051 -0.173388 0.143197
-0.11954 -0.209145 0.215036
-0.0725359 -0.199819 0.239757
-0.0708971 -0.20749 0.23815
-0.0752959 -0.202849 0.24238
-0.112773 -0.18713 0.218453
-0.122904 -0.217712 0.201014
-0.0987634 -0.208536 0.232626
-0.0401249 -0.207118 0.170771
-0.0299431 -0.204396 0.16361
-0.0303567 -0.210063 0.164212
-0.0483265 -0.199611 0.176493
-0.0493399 -0.194231 0.171779
-0.0423612 -0.195555 0.16725
-0.0598274 -0.180854 0.164684
-0.063461 -0.183895 0.185681
0.0388392 -0.0971842 0.165243
0.112962 -0.163156 0.14966
0.120389 -0.156735 0.143035
0.1207 -0.161122 0.148404
0.123075 -0.146422 0.132004
0.118357 -0.146473 0.132221
0.132507 -0.137934 0.125112
0.130242 -0.130005 0.120311
0.139639 -0.137828 0.124536
0.136865 -0.113688 0.110851
0.133868 -0.115728 0.11129
0.0526355 -0.0533203 0.169902
0.051884 -0.0429282 0.171208
0.0147329 -0.0542401 0.175903
0.0241549 -0.0487881 0.17568
0.0295391 0.0309995 0.257572
0.0192766 0.0364549 0.265902
0.0332879 0.0387442 0.261352
-0.138354 0.00813162 0.0996847
-0.10469 0.00656187 0.159363
-0.0990767 0.00926963 0.178075
-0.0969619 0.00315708 0.168637
-0.055912 -0.00588409 0.193813
-0.0166802 -0.00866081 0.205823
-0.00645539 -0.00932601 0.207408
-0.0137251 -0.0158816 0.195412
0.0690052 -0.0397588 0.165646
0.0588457 -0.0368939 0.169719
-0.0240126 0.0880695 0.293563
-0.0286984 0.0789842 0.288877
-0.0393769 0.0870976 0.287108
0.180494 0.0229332 0.116411
0.141321 -0.0915098 0.0960329
0.106029 -0.0625425 0.136852
0.130806 -0.154939 0.135639
0.127006 -0.157127 0.140391
0.130492 -0.150862 0.133198
0.093879 -0.122798 0.121303
0.10232 -0.116108 0.118622
0.10052 -0.125491 0.115391
0.0659852 -0.12469 0.140944
-0.0869195 -0.0410799 0.149847
-0.085166 -0.0539675 0.149541
-0.19407 0.068535 0.048798
-0.194395 0.0702834 0.0371638
0.16874 -0.174938 0.00550575
0.169664 -0.173104 0.00777266
0.154201 -0.130424 0.117845
0.163472 -0.120318 0.112671
0.164693 -0.12576 0.113556
0.228027 -0.211851 -0.145816
0.22287 -0.198052 -0.145994
0.151312 -0.182266 0.196938
0.148284 -0.179343 0.19333
0.277804 -0.195373 -0.17389
0.287372 -0.193725 -0.177712
0.1524 -0.207137 0.233157
0.157508 -0.211814 0.232096
0.145515 -0.204875 0.232364
0.128442 -0.21146 0.236088
0.133519 -0.184929 0.209731
0.14373 -0.176024 0.187126
0.123355 -0.178245 0.187367
0.131612 -0.17433 0.187754
0.128617 -0.179743 0.193377
0.0906879 -0.173547 0.169177
0.0955941 -0.194111 0.219415
0.0895058 -0.191291 0.211591
0.0953634 -0.188274 0.213588
0.133246 -0.196437 0.23585
0.125903 -0.19866 0.235769
0.128293 -0.19444 0.23479
0.104367 -0.19677 0.225057
0.131786 -0.189946 0.229994
0.142632 -0.220415 0.228624
0.145095 -0.222792 0.22088
0.130554 -0.204141 0.237483
0.141158 -0.20799 0.235811
0.0850379 -0.212839 0.21213
0.0784153 -0.193414 0.196988
0.0798876 -0.183165 0.188811
0.140063 -0.153297 0.125921
0.146828 -0.157428 0.115803
0.279267 -0.172749 -0.235416
0.278542 -0.172947 -0.217002
0.309685 -0.190263 -0.191059
0.312846 -0.209234 -0.194511
0.312295 -0.20073 -0.192034
0.298572 -0.183475 -0.187907
0.298292 -0.188778 -0.183328
0.290493 -0.184661 -0.182845
0.282661 -0.201704 -0.173649
-0.234396 -0.181266 -0.164902
-0.304759 -0.186131 -0.242385
-0.192243 -0.13497 0.0515914
-0.212111 -0.118607 0.0430184
-0.217407 -0.120511 0.0140823
-0.224304 -0.150248 -0.1288
-0.261723 -0.166484 -0.254928
-0.255861 -0.16666 -0.221659
-0.260612 -0.16812 -0.22897
-0.315311 -0.185963 -0.279875
-0.313874 -0.18623 -0.261793
-0.227495 -0.0532474 0.0452148
-0.225087 -0.0667463 0.0546917
-0.281119 -0.0397675 -0.00715557
-0.269523 -0.0291506 0.0104852
-0.234283 -0.088623 0.0493704
-0.239579 -0.0963417 0.0308185
-0.191752 -0.0739307 0.0690181
-0.181535 -0.0752902 0.0693204
-0.210625 -0.122898 0.0342956
-0.218402 -0.0714462 0.0603951
-0.21032 -0.0638191 0.0589832
-0.260947 -0.0124934 0.0203746
-0.151644 -0.100349 0.0864659
-0.110908 -0.00747642 0.135188
-0.0996501 -0.00737295 0.148624
-0.102656 -0.0128084 0.142678
-0.0645802 -0.016306 0.175205
-0.00748173 -0.0226056 0.187912
-0.00755093 -0.0157032 0.196787
-0.150146 -0.0863576 0.0763786
-0.156648 -0.0855414 0.076164
-0.152628 -0.0799292 0.0733528
-0.134222 -0.0890836 0.0829775
-0.122058 -0.0775274 0.106867
-0.133952 -0.0646897 0.0941788
-0.143488 -0.0723341 0.073529
-0.146472 -0.0698176 0.0698881
-0.123071 -0.0602101 0.111532
-0.112469 -0.0596046 0.125277
-0.157619 -0.121501 0.0929494
-0.0939815 -0.159875 0.132204
-0.0984168 -0.153115 0.124388
-0.0758693 -0.154422 0.126332
-0.111128 -0.117751 0.101202
-0.136097 -0.092606 0.0830934
-0.139444 -0.0864351 0.0786504
-0.152289 -0.0946907 0.0829903
-0.148466 -0.108868 0.0905668
-0.0700854 -0.172671 0.169677
-0.0665682 -0.171779 0.160163
-0.0565931 -0.185835 0.165008
-0.052429 -0.163096 0.124769
-0.0855574 -0.13738 0.11309
-0.0875025 -0.132218 0.112016
-0.0384391 -0.155675 0.121237
-0.0420349 -0.159986 0.120873
-0.0873116 -0.166266 0.139604
-0.0760532 -0.173057 0.173452
-0.0851288 -0.157389 0.129911
-0.140846 -0.164875 0.10122
-0.14912 -0.125366 0.0982464
0.278218 -0.0610742 0.0316189
0.276976 -0.0612334 0.0374085
0.275757 -0.0681301 0.0340973
0.0732054 -0.0100396 0.169526
0.085633 -0.0154353 0.157343
0.25209 -0.0110416 0.0392807
0.227028 0.0179235 0.0766605
0.205568 -0.030339 0.0923324
0.212343 -0.0402728 0.0849776
0.205223 0.00804276 0.101921
0.251751 -0.0456028 0.069767
0.231233 -0.0349163 0.0816641
0.241966 -0.025895 0.0754894
0.259568 -0.0250249 0.0534237
0.255201 -0.0708933 0.0710169
0.264848 -0.0671172 0.061612
0.267672 -0.0795076 0.0402536
0.272586 -0.0743695 0.0365736
0.23563 -0.0106981 0.0770155
0.213716 -0.0355941 0.0861725
-0.0747315 0.219618 0.182437
-0.0967075 0.172683 0.204083
-0.0874865 0.169462 0.215007
-0.091761 0.167044 0.211994
-0.0845394 0.190777 0.20121
-0.0879625 0.190352 0.198294
-0.0945869 0.211683 0.157531
-0.0865306 0.211785 0.179208
-0.102925 0.199615 0.173702
-0.0970163 0.192955 0.19154
-0.104385 0.195964 0.183547
-0.109373 0.195554 0.176445
-0.0211018 0.142258 0.304079
-0.0137319 0.138402 0.306488
-0.0248139 0.134472 0.305492
-0.120923 0.167996 0.169691
-0.121415 0.169593 0.166106
-0.0281425 0.146319 0.300163
-0.109546 0.177197 0.194837
-0.104596 0.184327 0.19535
-0.0835688 0.104235 0.262695
-0.0911389 0.105915 0.25881
-0.0850596 0.108544 0.264265
-0.0132562 0.131644 0.307957
-0.058192 0.0505515 0.259052
-0.0674606 0.0482184 0.249879
-0.0629278 0.0601796 0.260448
-0.0744406 0.213811 0.196615
-0.0595456 0.178074 0.25677
-0.0730453 0.1731 0.242144
-0.0703404 0.17907 0.241502
-0.0661255 0.212372 0.206246
-0.0332305 0.20546 0.2219
-0.00976564 0.228885 0.163183
-0.0127084 0.202407 0.236217
-0.0426059 0.219363 0.176184
0.00614791 0.220363 0.196481
0.0113797 0.211951 0.214723
0.00407029 0.216483 0.207353
-0.00138314 0.213511 0.214859
-0.00701456 0.20733 0.227473
0.0182626 0.202063 0.232486
-0.0448322 0.171401 0.275767
0.0100967 0.181025 0.268928
-0.0120751 0.148216 0.302488
0.0645642 0.217452 0.187867
0.0570665 0.216507 0.194261
0.0463653 0.159098 0.277126
0.0444819 0.163777 0.276448
0.0507445 0.168235 0.265488
0.0651587 0.132645 0.276469
0.0546047 0.134132 0.284976
0.0621721 0.138954 0.275059
0.0341046 0.17341 0.274115
0.0401843 0.166656 0.277209
0.114864 0.123874 0.184254
0.150252 0.100112 0.0731638
0.0352284 0.127874 0.300952
0.152914 0.079277 0.110209
0.150705 0.085075 0.107439
0.154317 0.087236 0.101983
0.04951 0.0985475 0.281576
0.0525231 0.144985 0.280736
0.0600993 0.15039 0.264978
0.115894 -0.00162181 0.134354
0.0972873 0.0178446 0.168566
0.0938412 0.0234008 0.181307
0.0295948 0.109646 0.296411
0.0244454 0.116871 0.299925
0.00298306 0.076385 0.291141
-0.00966877 0.0861187 0.295256
0.204824 0.0539297 0.0729261
0.208569 0.0503187 0.0704012
0.153327 0.0519952 0.123373
0.152284 0.0469656 0.126167
0.143234 0.0493292 0.130542
0.076706 0.122535 0.267332
0.0844907 0.120504 0.259035
0.0752171 0.11461 0.269828
0.0482832 0.177001 0.260225
0.187389 0.0234134 0.112248
0.182892 0.0324121 0.113423
0.192031 0.0255521 0.108312
0.157625 -0.0432505 0.0852762
0.162625 -0.0463025 0.0828705
0.158435 -0.0488478 0.0828936
0.220163 0.0277659 0.0801778
0.19815 0.0179746 0.105305
0.199608 0.0281611 0.100205
0.101581 0.01188 0.154477
0.105571 0.0170183 0.152544
0.0354841 -0.00379573 0.20579
0.0436271 0.0069883 0.217728
0.0966934 0.0563663 0.21252
0.104468 0.0624583 0.214947
0.1049 0.0522207 0.203124
0.180708 0.0769866 0.0657039
0.180593 0.0730626 0.0882437
0.174839 0.0746412 0.0958343
0.0709708 0.0108971 0.194957
0.0790534 0.0217216 0.197595
0.0836386 0.0181788 0.187777
0.0154448 0.0280019 0.260234
0.00722771 0.0267001 0.260808
0.0373306 -0.0137362 0.190451
0.0354502 -0.0193275 0.185083
0.0279701 -0.0133343 0.195232
-0.107647 -0.110663 0.106542
-0.0284542 -0.112764 0.156412
0.00883796 -0.154215 0.135608
-0.138397 -0.172786 0.101497
-0.133498 -0.174521 0.110912
-0.125055 -0.178465 0.142339
-0.127405 -0.176131 0.128817
-0.094487 -0.166408 0.139666
-0.071753 -0.187071 0.222242
-0.0686292 -0.190656 0.222874
-0.0740095 -0.191165 0.235198
-0.091103 -0.206647 0.240087
-0.0908564 -0.200291 0.240787
-0.122134 -0.171895 0.132603
-0.124574 -0.171953 0.129655
-0.0673985 -0.179295 0.185439
-0.0729069 -0.177044 0.187506
-0.10465 -0.175641 0.187745
-0.10198 -0.17712 0.19384
-0.106432 -0.182114 0.208441
-0.128236 -0.174973 0.124193
-0.116127 -0.181547 0.160732
-0.118996 -0.183282 0.167276
0.115207 -0.131316 0.117818
0.118499 -0.138888 0.125026
0.112395 -0.137 0.121547
0.0907897 -0.149531 0.128706
0.0080607 -0.190635 0.155388
0.013203 -0.194941 0.15917
0.0301592 -0.176092 0.143924
0.0171902 -0.173226 0.129978
0.00810869 -0.165228 0.127643
0.0484196 -0.140148 0.139109
0.0568401 -0.184601 0.157335
0.0625831 -0.178069 0.152783
0.066417 -0.166402 0.14293
0.0646161 -0.170124 0.146212
0.0609649 -0.165531 0.139472
-0.0279554 -0.172016 0.129622
-0.0231496 -0.169706 0.125124
-0.0185156 -0.174704 0.129809
-0.00444061 -0.164189 0.125712
0.00537762 -0.169867 0.127115
-0.0490208 -0.181283 0.142298
-0.0428068 -0.187279 0.150412
0.0974648 -0.220906 0.218709
-0.0845131 -0.184815 0.2242
-0.0757828 -0.184088 0.218609
-0.075303 -0.186964 0.227907
-0.0820024 -0.210179 0.242864
-0.0863314 -0.206265 0.243016
0.0168816 -0.20972 0.162519
0.0241482 -0.213096 0.163314
0.0199488 -0.216887 0.161042
0.0127051 -0.217481 0.1604
0.00724245 -0.206736 0.163274
0.00897852 -0.226739 0.143922
0.00536515 -0.227764 0.135529
0.0312178 -0.224405 0.15955
0.0374466 -0.224319 0.164351
0.0418236 -0.225837 0.164011
0.0323848 -0.188496 0.156261
0.0305736 -0.137636 0.145115
0.250474 -0.171578 -0.188221
0.237903 -0.108687 0.0558894
0.237662 -0.103666 0.0648179
0.225062 -0.114016 0.0713136
0.229183 -0.11308 0.0659179
0.164328 -0.0997898 0.105127
0.177584 -0.0913548 0.103834
0.167503 -0.071712 0.0925804
0.162354 -0.082834 0.0960989
0.20412 -0.0697061 0.0965833
0.205477 -0.0555831 0.0903784
0.246101 -0.0984956 0.0576694
0.242957 -0.104821 0.0505124
0.215271 -0.107006 0.0880355
0.221068 -0.121568 0.0656981
0.192566 -0.0726955 0.0974904
0.232557 -0.0853678 0.0857836
0.218966 -0.125289 0.0576336
0.266353 -0.170307 -0.238472
0.262479 -0.169029 -0.234777
0.26783 -0.170944 -0.211502
0.243717 -0.18445 -0.154183
0.255433 -0.182182 -0.176872
0.24956 -0.187263 -0.157032
0.0810401 -0.217984 0.205645
0.0784582 -0.222144 0.199785
0.0806634 -0.224404 0.199334
0.0458959 -0.221222 0.17143
0.0475924 -0.213477 0.176088
0.0411482 -0.204447 0.171631
-0.0876204 -0.211559 0.240242
-0.0934639 -0.208833 0.236797
-0.104243 -0.185551 0.220681
-0.10649 -0.189501 0.227946
-0.119943 -0.189751 0.191409
-0.118057 -0.190083 0.197886
-0.00743368 -0.20201 0.163156
-0.00930007 -0.212016 0.162102
-0.0237425 -0.226831 0.142325
-0.039026 -0.202445 0.169494
-0.0449801 -0.204388 0.175065
-0.0112107 -0.192329 0.156813
-0.0137464 -0.194211 0.158037
-0.025215 -0.191444 0.153871
-0.021025 -0.194131 0.156264
-0.0297226 -0.194928 0.15771
-0.0474697 -0.0226189 0.178742
-0.0370962 -0.0279323 0.178614
-0.0658666 -0.0314962 0.164157
0.0950072 -0.165144 0.154736
0.101463 -0.161804 0.151132
0.121159 -0.178258 0.202605
0.119261 -0.177667 0.199305
0.126522 -0.162205 0.148467
0.0802764 -0.169712 0.160434
0.0829967 -0.165688 0.153748
0.0878145 -0.167958 0.157436
0.141978 -0.142351 0.125401
0.13645 -0.143974 0.128102
0.14676 -0.116345 0.112506
0.142078 -0.10743 0.105487
0.150178 -0.12395 0.116304
0.0333855 -0.038193 0.176243
-0.10564 0.098085 0.244946
-0.102415 0.106446 0.248028
-0.097229 0.0991004 0.251666
-0.0391428 0.119231 0.296765
-0.0470717 0.121037 0.293302
0.0288765 0.0731478 0.282162
0.0385664 0.0799484 0.281035
0.0396088 0.0672569 0.273035
-0.006041 -0.00251711 0.22019
-0.0136772 -0.0327742 0.179711
0.0748942 -0.0687144 0.157838
0.0366488 -0.0519243 0.173918
0.0840538 -0.0367891 0.157606
0.0741946 -0.0398092 0.163183
0.112578 -0.0360815 0.133929
0.201022 -0.0579075 0.0910723
0.150362 -0.0800349 0.0910684
0.172198 -0.0472137 0.0840794
0.0721515 -0.0835099 0.155826
0.11886 -0.116737 0.107762
0.124815 -0.117056 0.107216
0.105184 -0.12666 0.113258
0.108872 -0.119329 0.112363
0.126146 -0.0437154 0.117202
0.130346 -0.0510191 0.110229
0.12404 -0.0560095 0.118273
0.0738583 -0.115084 0.141342
0.079104 -0.10085 0.145401
0.0741882 -0.0926451 0.152063
-0.117781 0.177486 0.184188
-0.252808 -0.0283627 0.0261192
-0.251719 -0.0340481 0.0254772
-0.0961957 0.156109 0.221068
-0.140059 0.0881861 0.177718
-0.137292 0.091859 0.19434
-0.246151 0.0159817 0.0289257
-0.249524 0.0167411 0.00674747
-0.178937 0.0844946 0.0470492
-0.189941 0.0757514 0.0321263
0.214178 -0.215538 -0.150304
0.225707 -0.176632 -0.15275
0.227924 -0.176336 -0.156644
0.234617 -0.223239 -0.15603
0.167333 -0.200458 0.219583
0.229452 -0.223553 -0.16214
0.139098 -0.222819 0.224351
0.173392 -0.122463 0.112573
0.195213 -0.186359 -0.146813
0.202899 -0.186444 -0.14774
0.191736 -0.193824 -0.147386
0.250927 -0.201343 -0.137858
0.239977 -0.199847 -0.141825
0.243442 -0.196581 -0.140871
0.229142 -0.219474 -0.149039
0.279092 -0.173656 -0.207773
0.247417 -0.222069 -0.14922
0.2079 -0.1958 -0.148441
0.159759 -0.190689 0.21809
0.218361 -0.223385 -0.16497
0.157795 -0.200583 0.232144
0.162347 -0.205054 0.23025
0.156726 -0.205422 0.233164
0.145198 -0.195833 0.228341
0.147859 -0.202766 0.231987
0.136372 -0.173006 0.186498
0.2047 -0.21638 -0.152256
0.125769 -0.170519 0.174027
0.123408 -0.180137 0.205457
0.15507 -0.185794 0.213197
0.151933 -0.190178 0.225218
0.1364 -0.223832 0.218646
0.130007 -0.222497 0.228425
0.136659 -0.220037 0.232237
0.123594 -0.196625 0.23393
0.116125 -0.183642 0.213586
0.100732 -0.189608 0.217401
0.0993625 -0.198155 0.223829
0.119365 -0.191257 0.227407
0.114234 -0.193994 0.224088
0.105043 -0.218027 0.224889
0.103779 -0.221984 0.221178
0.114722 -0.224567 0.215621
0.107364 -0.223312 0.220166
0.113423 -0.222238 0.225245
0.117423 -0.219833 0.229192
0.118688 -0.176278 0.194475
0.116206 -0.175769 0.191207
0.101812 -0.168566 0.162329
0.108208 -0.169858 0.166746
0.108045 -0.171101 0.171513
0.0597486 -0.174898 0.148157
0.0670416 -0.171973 0.151831
0.0760871 -0.152594 0.123924
0.0742536 -0.156908 0.128718
0.0712143 -0.156601 0.12581
0.0738762 -0.172573 0.161302
0.0766599 -0.177618 0.174364
0.281428 -0.212609 -0.174279
0.290512 -0.219617 -0.184918
0.281092 -0.216889 -0.177409
0.261267 -0.219296 -0.151118
0.261341 -0.214234 -0.141009
0.265747 -0.216574 -0.147494
0.298173 -0.219226 -0.190088
0.162034 -0.211297 0.229029
0.162504 -0.21514 0.222331
0.258994 -0.193354 -0.148134
0.25927 -0.18828 -0.173383
0.267751 -0.174355 -0.189721
0.306407 -0.180105 -0.211782
0.277364 -0.180741 -0.18285
0.308024 -0.187423 -0.194775
-0.208425 -0.113463 0.0605185
-0.205548 -0.129454 0.0194601
-0.203397 -0.130398 0.0272731
-0.256792 -0.176794 -0.204241
-0.206959 -0.119541 0.0546088
-0.186049 -0.0918936 0.0774409
-0.202535 -0.0978998 0.0742472
-0.192154 -0.100027 0.0776292
-0.231466 -0.102628 0.0381837
-0.224615 -0.107211 0.0442678
-0.237992 -0.0815334 0.0486933
-0.192034 -0.108767 0.0767637
-0.218928 -0.104568 0.0556587
-0.141929 -0.0307037 0.0872616
-0.153027 -0.0367447 0.0687708
-0.149331 -0.0306447 0.0747027
-0.160351 -0.050072 0.0552276
-0.150443 -0.0508778 0.0698182
-0.156501 -0.0552435 0.0583956
-0.25068 -0.0736904 0.0363932
-0.135725 -0.055217 0.0946779
-0.18736 -0.0822619 0.0740511
-0.217636 -0.0436981 0.0446471
-0.21486 -0.0387575 0.0456048
-0.206727 -0.04563 0.0477064
-0.215866 0.0293329 0.0619158
-0.204191 0.0266431 0.0711124
-0.212488 0.0219869 0.0656341
-0.217079 -0.0138867 0.0586655
-0.21733 -0.00391975 0.0620378
-0.212509 -0.00760641 0.063849
-0.20182 -0.088935 0.0737372
-0.0808082 -0.066037 0.150389
-0.0406953 0.0750845 0.28188
-0.0357605 0.076059 0.284885
-0.0303753 0.00117549 0.220964
-0.0343851 -0.00725359 0.202094
-0.129297 -0.0413962 0.105864
-0.12293 -0.0503685 0.11393
-0.0289955 -0.0040882 0.210417
-0.0172691 -0.00360738 0.216417
-0.0628747 -0.0115656 0.181884
-0.0531014 -0.0129026 0.185377
-0.145937 -0.0553901 0.0766195
-0.141021 -0.057684 0.0855446
-0.0886224 -0.074563 0.143997
-0.115054 -0.0498704 0.124073
-0.144819 -0.0457878 0.0813604
-0.157022 -0.0416091 0.0626997
-0.12706 -0.0723341 0.101747
-0.149928 -0.0623933 0.0665041
-0.149323 -0.0679699 0.0673049
-0.154804 -0.0666527 0.0627388
-0.127829 -0.0800259 0.0968965
-0.131304 -0.0951341 0.0863237
-0.0595357 -0.14503 0.120529
-0.0696043 -0.165835 0.142966
-0.0528176 -0.173784 0.134994
-0.0384312 -0.140937 0.133626
-0.0593738 -0.16346 0.129124
-0.100304 -0.184167 0.21412
-0.0965455 -0.179802 0.198225
-0.101869 -0.17319 0.168453
-0.106124 -0.167866 0.135128
-0.11336 -0.167537 0.133411
0.242109 -0.0902548 0.0748795
0.23589 -0.0920486 0.0794538
0.296128 -0.181057 -0.192375
0.246775 -0.0856894 0.0726923
0.25461 -0.086569 0.0590814
0.0827244 0.0294914 0.203295
0.067779 -0.00914695 0.175595
0.0715596 0.0039098 0.186242
0.134332 -0.00866882 0.116041
0.131871 -0.0116883 0.11526
0.123608 -0.00810773 0.123633
0.233722 0.0127566 0.0691962
0.232307 -0.0270854 0.0838014
0.234896 -0.0238444 0.0819812
0.254436 -0.0235812 0.0593957
0.248681 -0.0280835 0.0684466
0.220972 -0.0476667 0.0839878
0.225207 -0.0407709 0.082397
0.210962 -0.045443 0.0853319
-0.0787203 0.186278 0.219119
-0.0762403 0.188804 0.224016
-0.0971861 0.212841 0.142051
-0.0943967 0.204058 0.166401
-0.0904521 0.204188 0.177042
-0.0950226 0.201689 0.174637
-0.0989172 0.207937 0.149838
-0.129213 0.136516 0.130011
-0.133376 0.125634 0.137131
-0.120465 0.161811 0.17336
-0.115177 0.153914 0.184525
-0.119997 0.15706 0.156282
-0.0813553 0.175345 0.220277
-0.0847598 0.187824 0.203062
-0.082028 0.181125 0.211317
-0.0956914 0.0825175 0.241561
-0.0977896 0.089846 0.245941
-0.0906751 0.0849699 0.245943
-0.166455 -0.0181782 0.0746239
-0.170493 -0.0231235 0.0700572
-0.17864 -0.0161197 0.0737103
-0.103008 0.13164 0.238106
-0.112295 0.126436 0.228879
-0.111035 0.135104 0.220284
-0.0993522 0.129041 0.245194
-0.0942525 0.134183 0.249492
-0.07439 0.112281 0.273152
-0.0676259 0.108917 0.27585
-0.0729152 0.104281 0.269623
-0.0844606 0.148173 0.252874
-0.0748987 0.15104 0.266237
-0.0759199 0.141123 0.271732
-0.0366379 0.196153 0.240448
-0.0356849 0.199915 0.233375
-0.0899492 0.197331 0.189574
-0.0911613 0.200361 0.18354
-0.0586881 0.205965 0.220817
-0.0580614 0.21954 0.188173
-0.0352996 0.215842 0.194955
-0.0375717 0.220591 0.17443
-0.0162325 0.22268 0.191202
0.0120262 0.195301 0.24598
0.00446097 0.188895 0.257592
0.0025884 0.223667 0.186871
0.015593 0.219718 0.191522
0.0304482 0.190326 0.251315
-0.0461181 0.147663 0.293027
-0.0357691 0.163135 0.287488
-0.0208152 0.159655 0.294188
-0.0375232 0.144275 0.298238
-0.0546917 0.116955 0.287803
0.0580726 0.157336 0.261741
-0.00554063 0.137092 0.307567
0.048348 0.103757 0.284692
0.0197908 0.0895738 0.292864
0.0171517 0.0969388 0.297263
0.0901753 0.18119 0.198636
0.0822849 0.176781 0.204581
0.0816507 0.187813 0.199225
0.0638354 0.145248 0.266064
0.0652413 0.150138 0.25735
0.0732983 0.148888 0.247317
0.107826 0.156455 0.18273
0.105512 0.164497 0.190246
0.105508 0.125211 0.221904
0.0951206 0.127234 0.240368
0.097418 0.131084 0.23276
0.0627663 0.0381732 0.235813
0.052388 0.0265296 0.234474
0.0557467 0.119787 0.288017
0.0604569 0.121618 0.283437
0.0606006 0.114744 0.284195
0.141232 0.0796857 0.115571
0.142584 0.0902189 0.105809
0.0118485 0.0679027 0.286256
0.00108371 0.0596311 0.284245
0.0653688 0.0516385 0.245784
0.0572512 0.0476196 0.2485
0.0562502 0.0545737 0.254042
-0.0321632 0.110953 0.300317
-0.0324982 0.130076 0.303236
-0.0379782 0.122811 0.2981
0.00612888 0.131424 0.3059
0.00147631 0.128461 0.30638
0.0014348 0.138235 0.306362
-0.0157767 0.118679 0.303549
-0.00829576 0.118879 0.303404
0.0567657 0.165292 0.258133
0.069537 0.161005 0.236436
0.0686023 0.156172 0.244656
0.063404 0.160908 0.249335
0.0707754 0.201048 0.210379
0.0619436 0.194029 0.227213
0.0809639 0.193086 0.197044
0.0861987 0.190432 0.194168
0.0764337 0.188253 0.208341
0.10178 0.171958 0.19435
0.0925394 0.172114 0.199981
0.214898 -0.0126605 0.0956351
0.10655 0.0226958 0.157599
0.110555 0.0233185 0.150123
0.109474 0.0171251 0.146968
0.180317 0.0416271 0.111811
0.177255 0.0498267 0.110251
0.193185 0.0356411 0.103201
0.145251 0.101799 0.0818563
0.233478 0.038077 -0.0165824
0.219801 0.0330832 0.0759078
0.209247 0.0366876 0.0867926
0.0696478 0.0448873 0.236585
0.0758174 0.0517121 0.237562
0.0843184 0.0599932 0.23358
0.0861071 0.0669615 0.233386
0.0903483 0.0618369 0.223643
0.0904681 0.115215 0.252993
0.0832203 0.104932 0.262225
0.0880752 0.0716224 0.23509
0.0799907 0.073907 0.245295
0.117958 0.0575971 0.187055
0.115259 0.0615742 0.199608
0.125923 0.0234757 0.133902
0.11689 0.0311401 0.145139
0.123907 0.0328849 0.13806
0.143201 0.0431968 0.130895
0.137371 0.0351159 0.132086
0.134847 0.0465412 0.133296
0.159193 0.0301002 0.124708
0.14968 0.0361412 0.127779
0.15681 0.0430104 0.125502
0.0695107 0.0353487 0.226935
0.0932832 0.00544573 0.160149
0.0244696 0.0220791 0.251551
0.0382836 0.0231726 0.244578
0.0791944 0.0296917 0.207983
0.0625593 -0.00759379 0.181647
0.0647775 0.00774966 0.198417
0.0532459 0.0130107 0.217851
-0.112886 -0.114203 0.0997641
-0.0288974 -0.138541 0.139107
-0.00261805 -0.13623 0.145794
-0.144448 -0.168415 0.0939117
-0.115694 -0.19506 0.223624
-0.122003 -0.198442 0.204443
-0.132718 -0.180609 0.110062
-0.0806051 -0.178783 0.202841
-0.0763159 -0.181025 0.209158
-0.0830236 -0.179779 0.206603
-0.0887697 -0.175594 0.171613
-0.0970663 -0.174539 0.174603
-0.102609 -0.189467 0.227563
-0.110195 -0.179513 0.17869
-0.106793 -0.175546 0.170601
-0.0932499 -0.179638 0.197163
-0.103121 -0.179705 0.199059
-0.116986 -0.185028 0.175767
-0.147827 -0.17005 0.0869041
0.0739794 -0.16825 0.154155
0.0696709 -0.163046 0.138788
0.0779323 -0.1619 0.143969
0.0984245 -0.185601 0.209692
0.097108 -0.182064 0.199555
0.0202442 -0.176218 0.135839
0.0270479 -0.173299 0.133501
0.0229093 -0.179612 0.145469
-0.0447864 -0.14922 0.123394
-0.0170291 -0.168111 0.12371
0.00562247 -0.187636 0.151335
-0.0868356 -0.199594 0.243105
-0.0840538 -0.222475 0.19022
-0.088582 -0.220035 0.209019
-0.0960099 -0.194433 0.232465
-0.0939213 -0.191873 0.231153
-0.0502305 -0.225285 0.158903
-0.0690834 -0.213265 0.232371
-0.0328993 -0.188778 0.151123
-0.0361869 -0.194589 0.16069
-0.0613879 -0.197521 0.201431
-0.0635572 -0.202442 0.214608
-0.0663164 -0.194106 0.220468
-0.0622302 -0.208321 0.210852
-0.0599488 -0.213761 0.205561
-0.0652759 -0.210008 0.223755
0.0252037 -0.193792 0.158874
-0.00950027 -0.225234 0.151216
0.0243377 -0.22527 0.153375
0.00132385 -0.224059 0.154054
0.0263449 -0.220768 0.160864
0.0206005 -0.221843 0.15745
0.0369794 -0.19924 0.166487
0.0320184 -0.109454 0.161928
0.105515 -0.131585 0.113947
0.112194 -0.128862 0.112153
0.108753 -0.133145 0.114519
0.184682 -0.140544 0.0905187
0.178669 -0.133938 0.102755
0.186771 -0.13197 0.0972098
0.213672 -0.0973898 0.095086
0.284509 -0.173352 -0.217007
0.296228 -0.17538 -0.214094
0.252018 -0.0956748 0.0498286
0.161464 -0.112442 0.109719
0.184191 -0.0986878 0.10632
0.181771 -0.0857791 0.101722
0.240487 -0.0582796 0.0810267
0.244504 -0.0943294 0.0656552
0.196353 -0.0963776 0.103119
0.186951 -0.0647871 0.0928097
0.181815 -0.0723181 0.0977076
0.234385 -0.180834 -0.15213
0.264252 -0.194202 -0.169562
0.0709823 -0.176539 0.164261
0.0730831 -0.190782 0.186037
0.0506238 -0.208086 0.179326
0.067788 -0.225062 0.18663
0.0864364 -0.224863 0.204922
-0.0931704 -0.213973 0.234309
-0.0997411 -0.213783 0.229623
-0.0996572 -0.216587 0.225603
-0.105794 -0.192599 0.230957
-0.121978 -0.216724 0.205703
-0.119232 -0.212985 0.214728
-0.112531 -0.216842 0.218562
-0.0127773 -0.186652 0.151306
-0.00326678 -0.184137 0.144374
0.00383625 -0.181607 0.137979
-0.0296365 -0.175687 0.138508
-0.0209799 -0.178412 0.139956
-0.0263106 -0.179761 0.143209
-0.0388994 -0.183628 0.144996
-0.0131592 -0.207828 0.162114
-0.0176905 -0.201962 0.160121
-0.0215316 -0.207358 0.161129
-0.0196106 -0.211941 0.160938
-0.049564 -0.204057 0.179608
-0.0258797 -0.200969 0.160351
-0.0233634 -0.222737 0.155591
-0.0232065 -0.224697 0.152008
-0.0385618 -0.17272 0.13498
-0.0283973 -0.164797 0.122059
-0.0207383 -0.185773 0.149895
-0.0238648 -0.0325521 0.178534
-0.0174066 -0.0237045 0.18572
-0.00759603 -0.0270775 0.183661
-0.114651 -0.0183042 0.127518
-0.121781 -0.0231779 0.117713
-0.127536 -0.0156302 0.111014
-0.0522486 -0.0341894 0.169861
0.09742 -0.176889 0.17743
0.0955018 -0.176063 0.173082
0.097919 -0.175223 0.171747
0.119714 -0.164521 0.154958
0.126866 -0.165399 0.159616
0.12399 -0.138891 0.125691
0.0806294 -0.148321 0.122091
0.0719683 -0.14584 0.12523
0.0811676 -0.141066 0.122392
0.148352 -0.134176 0.121815
0.143065 -0.129076 0.120062
0.118132 -0.110426 0.108227
0.167468 -0.106936 0.108474
0.193493 -0.140853 0.0791316
0.0208915 -0.037638 0.177571
0.000311962 -0.0212441 0.189531
0.0494456 0.0317058 0.24277
-0.0971451 0.0649659 0.235106
-0.105877 0.0625498 0.223792
-0.101573 0.069897 0.230469
-0.0470976 0.0920743 0.285216
0.0443515 0.0744983 0.27452
0.0994387 0.092647 0.242403
0.100571 0.0880701 0.239889
0.0936913 0.0873077 0.246297
0.00610772 0.011671 0.244636
0.0404826 -0.0220625 0.18077
0.107023 -0.0254593 0.140515
0.11417 -0.0155182 0.134648
0.114083 -0.0259772 0.133476
0.123039 -0.0342956 0.122042
0.136497 -0.0379258 0.102179
0.17789 -0.0660889 0.092376
0.111535 -0.0604681 0.131943
0.115388 -0.0721874 0.125014
0.128401 -0.0999038 0.102782
0.110922 -0.110774 0.11353
0.139695 -0.074285 0.0941474
0.134298 -0.0652035 0.101799
0.139125 -0.06741 0.0953967
0.128225 -0.0127706 0.117503
0.135501 -0.0153351 0.110979
0.125216 -0.0868625 0.108763
0.117419 -0.0890638 0.11712
0.120946 -0.0765869 0.116935
0.0845087 -0.083893 0.148051
0.0783346 -0.121945 0.134247
0.1132 -0.121304 0.110278
0.129784 -0.110963 0.104831
0.0870585 -0.0926617 0.143373
-0.154526 0.0331297 0.0964199
-0.164201 0.0386155 0.0934818
-0.153442 0.0413452 0.0968709
-0.237983 0.0230857 0.0352744
-0.241592 0.0236256 0.0233994
-0.24044 0.0280861 0.0182803
-0.175808 0.0874147 0.0453501
-0.212375 0.0417743 0.0586184
-0.206188 0.0401747 0.0665272
-0.213506 0.0360874 0.0614516
-0.153934 0.0499215 0.0958292
-0.162842 0.0464988 0.093075
-0.156817 0.0563006 0.0927252
-0.242064 0.0420263 -0.0612929
-0.232854 0.0331635 0.0267571
-0.114009 0.177883 0.190327
-0.218059 0.0407536 0.0468675
-0.148054 0.0471659 0.0991811
-0.134051 0.0554683 0.187453
-0.132549 0.0494718 0.180506
-0.207638 -0.0558251 0.0529628
-0.167173 0.0142077 0.0902452
-0.17544 0.0167557 0.0889594
-0.169049 0.0183897 0.0915086
0.242463 -0.190959 -0.143462
0.232369 -0.216835 -0.146319
0.15945 -0.166609 0.0796755
0.167002 -0.155331 0.0932441
0.171374 -0.158384 0.0700284
0.220229 -0.183833 -0.147605
0.173457 -0.156243 0.0783359
0.173994 -0.14736 0.0950469
0.175205 -0.151655 0.0873423
0.179351 -0.125584 0.107887
0.260168 -0.197306 -0.142934
0.268543 -0.210413 -0.149273
0.268048 -0.210858 -0.145636
0.168169 -0.207626 0.218632
0.133696 -0.188877 0.227042
0.156677 -0.189857 0.222322
0.222014 -0.221864 -0.155519
0.245254 -0.21692 -0.143204
0.143043 -0.167198 0.113334
0.136368 -0.170123 0.182435
0.132163 -0.167964 0.166932
0.196967 -0.200533 -0.149007
0.121119 -0.176751 0.183136
0.123733 -0.179705 0.195146
0.147112 -0.181102 0.207021
0.11851 -0.223628 0.222125
0.0885596 -0.222293 0.210459
0.0976807 -0.179099 0.183756
0.0508677 -0.173428 0.145184
0.0525319 -0.168582 0.14027
0.0512626 -0.153099 0.129511
0.111732 -0.179954 0.202188
0.114679 -0.176206 0.19147
0.0935093 -0.170504 0.160358
0.303052 -0.218898 -0.198592
0.26246 -0.195554 -0.150881
0.291023 -0.208785 -0.177611
0.282946 -0.20701 -0.173555
0.273467 -0.208593 -0.167477
0.274781 -0.200752 -0.168621
0.298284 -0.178901 -0.20735
0.304163 -0.177722 -0.217109
0.264736 -0.171092 -0.207276
0.257663 -0.172841 -0.188807
0.259521 -0.170174 -0.211298
0.248159 -0.174601 -0.180975
0.250976 -0.173416 -0.183441
0.304552 -0.18641 -0.189354
0.290897 -0.180943 -0.187697
-0.317649 -0.188405 -0.2839
-0.236587 -0.158895 -0.153823
-0.211103 -0.11397 0.056859
-0.213737 -0.0592359 0.0543416
-0.219178 -0.0553954 0.0505044
-0.21154 -0.027043 0.0565062
-0.207587 -0.0347929 0.0515005
-0.241994 -0.0834074 0.0426039
-0.144084 -0.0877165 0.0781789
-0.164685 0.0302229 0.0931538
-0.0283067 0.0394942 0.269087
-0.0230707 0.0312058 0.263636
-0.0383217 0.0337802 0.260071
-0.152263 -0.0717204 0.067066
-0.257656 -0.0023102 0.0236806
-0.261469 0.00268623 0.00682608
-0.256763 0.00594909 0.0170593
-0.26183 -0.0615053 0.0231096
-0.263263 -0.0552475 0.0214954
-0.25545 -0.0516245 0.0277578
-0.258728 -0.0577344 0.0256595
-0.248473 -0.0532015 0.0339745
-0.237841 -0.0601331 0.0447002
-0.245415 -0.061118 0.0400831
-0.234322 -0.0526704 0.0429368
-0.269528 -0.0433135 0.0135533
-0.208332 -0.0905072 0.0712828
-0.195575 -0.0713187 0.0663971
-0.045325 -0.0308125 0.174194
-0.0949906 -0.038518 0.144204
-0.0842415 -0.0338539 0.152427
-0.090092 -0.0111511 0.15653
-0.0939847 -0.0224644 0.147645
-0.0347896 0.0250779 0.254004
-0.0288561 0.0123879 0.24166
-0.0395817 0.007991 0.228194
-0.0346377 0.0167384 0.244608
-0.0160472 0.0371399 0.269609
0.00123803 0.0373953 0.270169
-0.0264251 -0.0111073 0.198702
-0.0328299 -0.0359117 0.175424
-0.117014 -0.0358951 0.123087
-0.105574 -0.0363839 0.134956
-0.11542 -0.0401767 0.124505
-0.0967421 -0.0250448 0.144508
-0.104183 -0.0238026 0.138117
-0.133458 -0.0730465 0.091137
-0.138148 -0.0772871 0.0805071
-0.163759 -0.0793878 0.0717486
-0.166655 -0.0846893 0.076123
-0.13327 -0.08666 0.084608
-0.140121 -0.0796531 0.077027
-0.0791546 -0.176336 0.186923
-0.0652375 -0.167875 0.143885
-0.0622136 -0.171872 0.149729
-0.0915118 -0.177967 0.181988
-0.0849443 -0.173818 0.166461
-0.0832363 -0.18286 0.214891
-0.0852832 -0.171996 0.158131
-0.0653637 -0.18552 0.197527
-0.0721009 -0.181631 0.205073
0.262987 -0.0625405 0.0644392
0.0683498 0.0204615 0.210294
0.119132 -0.0102273 0.129481
0.105205 0.0388138 0.186677
0.112786 0.0476633 0.185372
0.112643 0.0397529 0.171616
0.108981 0.0374861 0.177604
0.121145 -0.0642092 0.119894
0.118993 -0.0566978 0.12463
0.105061 -0.0722553 0.13544
0.220742 -0.0353812 0.0848578
0.242568 -0.0417895 0.0757457
-0.0984117 0.200418 0.165877
-0.127789 0.0712341 0.214713
-0.135897 0.0700316 0.19586
-0.137125 0.0774934 0.194477
-0.159969 0.0715384 0.0863448
-0.169485 0.0825726 0.0697689
-0.158182 0.0764171 0.0847816
-0.0967511 0.118868 0.252047
-0.095751 0.104365 0.254614
-0.104824 0.113091 0.243761
-0.109712 0.157945 0.194712
-0.105892 0.152288 0.202999
-0.112086 0.157501 0.191061
-0.0872001 0.124262 0.262286
-0.080969 0.137103 0.266863
-0.0803789 0.113952 0.269814
-0.11825 0.162049 0.180975
-0.0536485 0.166426 0.276118
-0.0553145 0.156511 0.282981
-0.067854 0.154937 0.27277
-0.0667745 0.164323 0.265859
-0.061425 0.155429 0.279383
-0.115295 0.0895827 0.234581
-0.126593 0.0891323 0.222546
-0.122671 0.09433 0.22799
-0.118807 0.0265654 0.171153
-0.112184 0.0238862 0.183454
-0.114022 0.0199893 0.168696
-0.0210145 0.0482429 0.277161
-0.109188 0.123175 0.235341
-0.119919 0.125363 0.216138
-0.118972 0.133255 0.201109
-0.0901266 0.115636 0.260411
-0.114768 0.107456 0.234209
-0.116211 0.100423 0.234227
-0.0452526 0.129134 0.29859
-0.0561209 0.12562 0.290977
-0.0530457 0.131667 0.29436
-0.0698131 0.216278 0.19579
-0.0561057 0.216641 0.196057
-0.0419287 0.217671 0.184075
0.0137407 0.216446 0.20244
0.0476399 0.209521 0.211418
0.0425909 0.217352 0.19048
0.0282761 0.21974 0.174888
0.0262317 0.219179 0.179058
0.0224531 0.219644 0.185914
0.0283292 0.216718 0.190314
0.0344938 0.156292 0.286068
0.0193148 0.125557 0.305221
0.0203607 0.114311 0.300464
0.0745585 0.161534 0.222552
0.0591188 0.10657 0.281186
0.0644162 0.111814 0.279735
0.0221529 0.0657962 0.282203
0.0170787 0.0766035 0.288206
0.0263032 0.103238 0.297491
0.0650293 0.0622102 0.253909
0.0654483 0.169482 0.238032
0.110394 0.158984 0.169916
0.109407 0.0524363 0.198644
0.110064 0.0612321 0.207798
0.100635 0.120929 0.2351
0.0975449 0.111704 0.24416
0.16888 0.0707632 0.103986
0.157983 0.0706876 0.111158
0.0873193 0.167311 0.204325
0.0387799 0.0331005 0.253547
0.0455962 0.0849168 0.280567
0.0616582 0.0852083 0.267387
0.0592503 0.0902586 0.27109
0.0660172 0.09034 0.265559
0.0279932 0.0608142 0.277209
0.041243 0.0508048 0.263679
0.0321754 0.0549066 0.272075
0.0284981 0.0440841 0.267404
-0.0628469 0.113827 0.281442
0.00708087 0.125535 0.305868
0.0126924 0.11984 0.302817
-0.00385124 0.133487 0.308194
0.0412165 0.156722 0.282863
0.0754003 0.17644 0.211532
0.0837879 0.209439 0.168592
0.10513 0.180606 0.184906
0.100492 0.147394 0.198026
0.0988563 0.152548 0.196497
0.103877 0.152495 0.187351
0.132125 0.00847451 0.126138
0.137137 0.000533531 0.120752
0.127845 -0.00139833 0.122309
0.168982 0.0286041 0.120681
0.142015 -0.00935318 0.115328
0.147427 -0.00328375 0.117372
0.19147 0.0602187 0.0471646
0.152655 -0.0487291 0.0855907
0.152358 -0.0394325 0.0890529
0.14922 0.0244048 0.127223
0.165974 0.0554013 0.115154
0.172485 0.0854299 0.0722207
0.183553 0.0736014 0.0783564
0.180586 0.0690181 0.0939104
0.167309 0.0868695 0.0831178
0.216636 0.0338167 0.0803469
0.0833311 0.0509613 0.228558
0.104788 0.0273421 0.168876
0.11944 0.0494042 0.162062
0.123194 0.0508452 0.144006
0.112293 0.030717 0.155631
0.115877 0.0238046 0.141675
0.134103 0.0166091 0.128196
0.137367 0.02532 0.130292
0.126462 0.0312236 0.136126
0.144424 0.0934414 0.101121
0.175034 0.0648294 0.102748
0.175754 0.0556394 0.108441
0.168045 0.0627401 0.1108
0.0455509 -0.0141056 0.185763
-0.109363 -0.113255 0.102481
-0.0999467 -0.17612 0.183453
-0.0833811 -0.177344 0.185345
-0.0967626 -0.190824 0.227702
-0.121105 -0.179378 0.151069
0.105697 -0.141318 0.123045
0.116717 -0.168942 0.161923
0.113629 -0.168946 0.161121
0.0829083 -0.177491 0.182286
0.049586 -0.202867 0.17714
0.000761864 -0.148693 0.138087
0.0167583 -0.161466 0.129618
-0.00441826 -0.155197 0.132577
0.00743471 -0.161092 0.129779
-0.0146759 -0.146029 0.13645
0.0071507 -0.18368 0.144516
-0.00214613 -0.187857 0.15105
0.0177753 -0.20324 0.161869
0.0231144 -0.199965 0.161363
-0.077683 -0.218746 0.221738
-0.0895295 -0.21751 0.223844
-0.0420793 -0.192614 0.161466
-0.0522028 -0.189428 0.164471
-0.0504865 -0.183945 0.147791
-0.0342285 -0.214372 0.165052
-0.0564797 -0.200222 0.189438
-0.0705742 -0.194405 0.233778
-0.0624596 -0.192059 0.198989
-0.0752825 -0.208161 0.242207
0.000609001 -0.225807 0.149546
0.012343 -0.221911 0.156632
0.0103886 -0.224637 0.151616
0.0995406 -0.132545 0.115424
0.100996 -0.136994 0.11587
0.0942685 -0.137681 0.117325
0.0652644 -0.111396 0.148211
0.053893 -0.140493 0.136821
0.0586552 -0.151564 0.127798
0.068437 -0.149546 0.125985
0.263454 -0.173647 -0.194158
0.170382 -0.112978 0.111783
0.200372 -0.0442486 0.0866626
0.186946 -0.049873 0.0868151
0.214294 -0.125691 0.0705236
0.22397 -0.0704269 0.0916341
0.24674 -0.182551 -0.174448
0.0664727 -0.181474 0.162295
0.0725199 -0.22479 0.190873
0.0588859 -0.224753 0.179379
-0.100951 -0.218498 0.21296
-0.108247 -0.193796 0.230864
-0.119133 -0.192789 0.203144
-0.12208 -0.213484 0.209817
-0.0580514 -0.224982 0.164915
-0.0623741 -0.222934 0.181578
-0.0585939 -0.20677 0.197151
-0.0566037 -0.210766 0.193899
-0.0251062 -0.216895 0.160454
-0.032224 -0.225392 0.152304
-0.0445723 -0.174517 0.13652
-0.0570282 -0.180335 0.153574
-0.0258952 -0.184696 0.148487
-0.0595482 -0.0274621 0.169326
-0.0562005 -0.0238438 0.173595
0.110853 -0.165327 0.153657
0.106197 -0.174992 0.181919
0.101757 -0.173852 0.173562
0.112604 -0.171151 0.175805
0.142783 -0.145932 0.125351
0.136626 -0.15007 0.129906
0.129137 -0.166242 0.16379
0.129958 -0.168559 0.170527
0.130414 -0.164469 0.144025
0.131865 -0.167391 0.158899
0.146691 -0.16915 0.104055
0.151949 -0.167467 0.0970362
0.130553 -0.144704 0.129693
0.0222571 0.00539201 0.228877
0.0135513 -0.00272734 0.217851
0.0145706 0.0090866 0.238308
0.000893508 -0.014977 0.198234
-0.000639773 -0.00750691 0.21089
0.0338686 0.0026272 0.218009
-0.0697555 0.0586973 0.254392
0.0134113 0.0185045 0.251789
0.197147 -0.0220545 0.0973514
0.137839 -0.0825117 0.0961233
0.133526 -0.086036 0.0998224
0.139529 -0.0478503 0.0979863
0.146661 -0.0443938 0.0909262
0.145201 -0.0571123 0.0898121
0.137484 -0.102934 0.100511
0.113642 -0.098848 0.116506
-0.137197 0.0840442 0.195138
-0.160984 0.0899966 0.0683896
-0.177607 0.0731305 0.0704692
-0.115183 0.173844 0.189923
-0.110979 0.194813 0.169134
-0.0975225 -0.00326585 0.154728
-0.0883828 -0.00449074 0.165975
-0.169204 -0.00379507 0.0822554
-0.158355 -0.011236 0.079188
-0.181203 0.0634948 0.0771711
-0.179725 0.0539238 0.08221
-0.18586 0.058446 0.0766964
-0.121304 0.0521498 0.207428
-0.129433 0.0565884 0.19974
-0.127088 0.0599541 0.207268
-0.267206 -0.00143015 -0.00498508
-0.267132 -0.00492513 0.00583336
-0.246891 0.01808 0.0137373
-0.229658 0.0115417 0.0503705
-0.234464 0.00997526 0.0450636
-0.234555 0.0169447 0.0444396
-0.220687 -0.0457142 0.0442804
-0.254409 -0.0632468 0.0320215
-0.222652 0.0128183 0.056859
-0.213964 0.00607575 0.0648666
-0.222229 0.00206681 0.0578379
-0.227766 -0.00181215 0.0513062
-0.22143 -0.00492447 0.0580813
0.242167 -0.176602 -0.177262
0.251846 -0.194604 -0.141419
0.243105 -0.208298 -0.141503
0.255295 -0.220705 -0.147169
0.193767 -0.142936 0.0731215
0.186573 -0.147534 0.0738563
0.267203 -0.214424 -0.145188
0.152452 -0.199973 0.232487
0.153476 -0.220057 0.224508
0.164253 -0.213738 0.21673
0.166198 -0.201874 0.223872
0.1665 -0.207146 0.22369
0.158744 -0.189845 0.212706
0.220589 -0.222819 -0.159022
0.219382 -0.219373 -0.151949
0.15908 -0.219382 0.21844
0.100034 -0.223248 0.217613
0.0498708 -0.164605 0.130401
0.0876646 -0.127356 0.123098
0.0865786 -0.135363 0.120436
0.0799465 -0.151716 0.12331
0.0779239 -0.155547 0.125015
0.0866972 -0.148804 0.121821
0.0798869 -0.156111 0.134132
0.108935 -0.178268 0.194673
0.100695 -0.181597 0.192407
0.158756 -0.217703 0.225764
0.297082 -0.196723 -0.180617
0.260665 -0.206234 -0.138362
0.269154 -0.213734 -0.149519
0.263444 -0.174731 -0.186228
0.261962 -0.176837 -0.182739
0.273578 -0.175332 -0.191117
0.242409 -0.186058 -0.148533
0.21268 -0.129466 0.0639505
0.254055 -0.169365 -0.20579
-0.272113 -0.170892 -0.237458
-0.250171 -0.166068 -0.212739
-0.177247 -0.0374337 0.0579254
-0.169152 -0.0440032 0.0532805
-0.172817 -0.050082 0.0512014
-0.250624 -0.077594 0.0341529
-0.153498 -0.0568239 0.0628237
-0.201327 -0.0502464 0.0497742
-0.172078 -0.0737301 0.065957
-0.166652 -0.0664387 0.0601975
-0.173886 -0.0665803 0.0610974
-0.230922 -0.0213993 0.0440887
-0.242232 -0.0291267 0.0355324
-0.242339 -0.0233145 0.0370093
-0.222719 -0.0227747 0.0496528
-0.214901 -0.0489432 0.0476501
-0.249786 -0.0453913 0.0307462
-0.263183 -0.047601 0.0205504
-0.180321 -0.0232316 0.0680859
-0.120969 -0.00980747 0.120898
-0.110172 0.0004062 0.140122
-0.106488 0.000540163 0.145816
-0.105426 0.0118687 0.171267
-0.074531 -0.0270993 0.160675
-0.0837604 -0.0276451 0.153863
-0.0521942 0.0709151 0.273258
-0.0495541 0.0847105 0.28031
-0.0427445 -0.0122752 0.190645
-0.0190863 -0.0186636 0.19217
-0.168612 -0.0499188 0.0523096
-0.166473 -0.0555585 0.0539928
-0.101477 -0.0459191 0.138121
-0.122135 -0.0397078 0.115892
-0.10877 -0.0483656 0.131102
-0.150397 -0.0747347 0.0698887
-0.158207 -0.0687253 0.0629225
-0.0769841 -0.179206 0.199328
-0.0772801 -0.189923 0.235837
0.264867 -0.072641 0.0580892
0.270335 -0.0681371 0.0495275
0.268523 -0.0655501 0.056044
0.17553 -0.0440536 0.0856112
0.19347 -0.0123302 0.103747
0.258967 -0.0208986 0.0378721
-0.160808 0.0867093 0.0727525
-0.171585 0.0693012 0.0792949
-0.161451 0.0926682 0.0614767
-0.167251 0.0923273 0.0437705
-0.137939 0.0663151 0.181249
-0.119115 0.0765247 0.226938
-0.12308 0.0834631 0.226115
-0.116083 0.0841896 0.232531
-0.128982 0.0980779 0.21662
-0.13389 0.0932576 0.205934
-0.133565 0.115063 0.189621
-0.155766 0.0836893 0.0804417
-0.132132 0.109309 0.206472
-0.12711 0.1071 0.217229
-0.133 0.106323 0.206328
-0.11674 0.139924 0.189087
-0.11837 0.143345 0.173375
-0.114655 0.145042 0.188804
-0.0668501 0.141686 0.280563
-0.0722105 0.13063 0.277908
-0.0881412 0.137886 0.255831
-0.0945447 0.144673 0.238584
-0.0869566 0.164974 0.226238
-0.0788388 0.163893 0.245576
-0.0723463 0.164789 0.25647
-0.0737929 0.157398 0.261639
-0.0536777 0.1411 0.291274
-0.0477449 0.14439 0.293954
-0.0591297 0.149293 0.28525
-0.0658384 0.148544 0.27914
-0.11745 0.094956 0.231859
-0.109735 0.081026 0.234901
-0.101478 0.0777144 0.235281
-0.106446 0.0697894 0.227345
-0.10973 0.0639312 0.222182
-0.0855113 0.00306623 0.185253
-0.0683934 0.00370355 0.201343
-0.075745 -0.00566126 0.180146
-0.0742292 0.0271226 0.223714
-0.0830185 0.0202427 0.210409
-0.0891894 0.0332696 0.21931
-0.103741 0.144038 0.222062
-0.101231 0.154529 0.20906
-0.104509 0.0909672 0.243231
-0.10867 0.0866709 0.239039
-0.0616253 0.132416 0.287101
-0.071361 0.148003 0.272966
-0.0665304 0.22292 0.168889
0.0206426 0.221259 0.17822
0.0399117 0.214506 0.199791
-0.0596881 0.161602 0.276194
0.000943313 0.11923 0.304113
0.047579 0.124801 0.294026
0.0483054 0.118154 0.29309
0.100575 0.166941 0.195305
0.108142 0.167723 0.186548
0.0792136 0.174451 0.207603
0.0738326 0.167025 0.219289
0.0749288 0.156215 0.231116
0.106686 0.173662 0.187433
0.109707 0.155748 0.174915
0.148583 0.0710336 0.117325
0.14775 0.0791008 0.113063
0.139168 0.0592757 0.127987
0.104387 0.112772 0.233161
0.102631 0.103677 0.237458
0.110777 0.132346 0.182319
0.110367 0.128725 0.197723
0.111571 0.119885 0.21182
0.0957408 0.0837219 0.242118
0.0922991 0.101282 0.252104
0.0244937 0.0537526 0.275168
-0.0279127 0.0668789 0.284946
-0.0146567 0.0673414 0.288015
-0.0188627 0.0601365 0.284223
-0.0108776 0.0768527 0.291878
-0.0175656 0.074383 0.29034
0.00956806 0.0603573 0.283353
-0.00649204 0.0422471 0.274326
-0.0318084 0.0492835 0.274717
-0.0825277 0.0518075 0.240444
-0.0854953 0.0621267 0.243445
-0.0782282 0.0583963 0.2476
0.0788779 0.185375 0.203326
0.0854408 0.195912 0.188306
0.0847047 0.166129 0.207638
0.0940481 0.162338 0.199988
0.109198 0.170898 0.183158
0.110589 0.170238 0.172026
0.142729 0.0153199 0.125872
0.156177 -0.0194309 0.106009
0.152012 -0.0329221 0.0932653
0.144773 -0.02519 0.102148
0.117494 -0.045756 0.128044
0.198063 0.0473165 0.0930455
0.210058 0.0410786 0.0822651
0.206429 0.0446027 0.0448448
0.141419 -0.0188745 0.106879
0.150867 -0.0118083 0.111506
0.168723 0.0180488 0.11888
0.183079 0.0751434 0.071195
0.190262 0.0688361 0.0721304
0.168496 0.0756701 0.101156
0.227094 0.0249745 0.062695
0.219426 0.0367566 0.0686343
0.0798376 0.0624636 0.241531
0.0731292 0.062077 0.248034
0.094651 0.0323789 0.191685
0.0947529 0.0690142 0.227294
0.117876 0.0494307 0.171366
0.168291 -0.0255766 0.100252
0.174413 -0.0150387 0.105453
0.177288 -0.0241654 0.100591
0.0991292 0.0240221 0.174114
0.117136 0.038975 0.153516
0.114368 0.0390214 0.164495
0.187923 0.0657097 0.0902163
0.189118 0.0705185 0.0651888
0.103605 -0.00632511 0.145694
0.0807243 -0.0110052 0.162359
0.0734271 -0.157784 0.131121
0.0727647 -0.187459 0.180756
0.0187363 -0.164644 0.128967
-0.00901849 -0.143912 0.139695
-0.0827238 -0.188995 0.235875
-0.0682294 -0.187103 0.212226
